X Y Z
51.025634 38.180844 21.017437
-19.937642 39.267428 17.914826
36.857342 36.518164 24.996951
61.257563 41.655143 11.764055
-12.752545 39.483841 17.041472
38.779350 36.518164 24.996951
-15.872167 39.069950 17.479990
-59.499169 37.553716 21.422435
-36.733781 38.540360 18.857007
-17.337290 39.069950 17.479990
-7.479858 39.238600 17.041472
37.542674 36.295032 24.695212
11.489240 39.837691 15.159027
-29.052659 38.615826 18.346026
-35.770272 38.419921 18.857007
52.066446 37.629841 20.609132
-60.939369 37.195238 21.746274
30.987102 34.575082 28.601940
-31.205425 38.341549 18.430469
-26.246423 38.341549 18.430469
-5.793073 39.072425 16.512092
-2.586195 39.162380 16.599227
32.268505 34.224172 28.667262
-18.843503 38.294860 17.914826
-6.157607 38.669771 16.599227
-15.872167 38.337388 17.479990
61.350985 40.512359 11.373686
-18.721932 38.051718 17.914826
-7.602479 38.380256 17.041472
11.479219 38.929526 15.249654
-9.319168 38.135015 17.041472
9.200888 38.668598 15.613923
30.868717 33.576499 28.947562
-34.956260 37.246497 18.773634
-7.635433 38.054011 16.599227
-2.093586 38.054011 16.599227
6.721634 37.089014 19.197694
36.828568 34.908060 25.070391
52.208502 36.629200 20.115610
-30.358766 37.132037 18.430469
-6.131031 37.644532 17.041472
10.062535 38.138251 15.703366
-59.067910 35.791644 21.746274
63.288263 38.966214 13.114241
-28.447396 36.921088 18.346026
-2.834908 37.593343 16.512092
9.698233 37.922580 15.613923
66.736883 38.643833 13.299537
-7.234617 37.154050 17.041472
6.991252 36.402726 18.773634
-16.790698 36.744860 17.831007
77.269157 39.353665 10.283187
-60.656850 35.061763 21.824166
-59.381814 35.206609 21.422435
-17.825665 36.628078 17.479990
-4.930274 36.977059 16.512092
11.180595 37.268649 15.703366
-8.951306 36.663567 17.041472
-4.560504 36.730545 16.512092
9.814078 37.020191 15.703366
73.011058 38.652913 10.781240
-60.604275 34.765243 21.343573
-2.942895 36.418326 17.041472
61.386527 38.173134 11.764055
-59.011557 34.336113 22.222668
11.438942 36.679216 15.613923
6.629635 35.438415 18.773634
-63.044759 34.388051 21.746274
10.568588 36.430544 15.613923
12.557969 36.430544 15.613923
-13.930303 35.681126 17.395084
-9.449748 35.835407 16.955461
-59.381161 34.490854 20.449013
-20.788638 35.377157 17.914826
61.148190 37.699414 11.274844
9.449561 36.181871 15.613923
11.863889 36.216083 15.159027
70.470517 37.915491 10.283187
10.941597 36.057535 15.613923
15.110848 36.216083 15.159027
-3.944220 35.621233 16.512092
15.610380 36.091200 15.159027
-9.073926 35.314740 17.041472
15.928528 35.839187 15.526311
15.235731 35.716550 15.159027
-27.236868 34.500033 18.346026
-4.295340 35.099064 16.955461
-8.099784 34.976340 16.955461
76.073247 37.124787 10.683124
-9.932271 34.824258 17.041472
-37.612033 31.981489 25.370087
61.666395 36.663004 11.274844
15.373737 35.372095 15.070254
-19.086645 34.404589 17.914826
16.123676 35.372095 15.070254
66.060064 35.687621 13.770498
12.557969 34.938508 15.613923
72.100047 36.440457 10.781240
65.484708 35.465606 13.678115
52.446354 33.299272 20.115610
-24.452655 33.773716 18.346026
-18.372430 33.946411 17.831007
73.531636 36.310312 10.781240
8.665600 34.538606 16.064928
-11.281098 34.088534 17.041472
15.110848 34.592603 15.159027
63.655579 35.054862 13.770498
65.738034 35.085617 13.678115
-58.372722 32.416240 21.343573
-25.199658 33.559160 18.263275
43.933111 32.109424 22.617979
16.359679 34.342837 15.159027
13.986901 34.217954 15.159027
65.465704 34.830297 13.299537
15.360614 34.217954 15.159027
28.725889 34.395473 14.237365
12.238538 34.093071 15.159027
11.489240 33.968188 15.159027
73.608351 35.562116 10.283187
-23.726338 32.805295 18.346026
-9.449748 33.258204 16.955461
-20.821073 32.684242 18.346026
-22.752612 32.608022 17.831007
12.060624 33.446472 15.613923
59.953713 34.534366 12.248933
-23.988136 32.468790 18.263275
14.611316 33.468656 15.159027
27.339991 33.765519 14.237365
61.128600 34.562162 11.764055
-36.533867 29.830405 26.107711
13.055314 33.197799 15.613923
-20.942125 32.200031 18.346026
12.557969 33.073463 15.613923
52.786306 31.767325 19.699535
-62.810827 30.996032 21.746274
40.932743 30.469598 23.399177
-35.609517 29.397265 26.766103
11.936287 32.949127 15.613923
42.748843 30.386340 22.935061
76.333772 34.389276 10.683124
-43.590502 31.409046 19.699535
-9.572472 32.153688 16.955461
-32.940723 29.045705 26.472264
77.208952 34.155147 10.183709
-56.258619 30.537038 21.343573
-14.843869 29.917875 23.325011
41.569217 29.659579 23.785138
64.598068 32.805685 13.678115
-33.856120 28.621786 26.403543
52.250853 30.469745 20.035341
-38.429491 28.850292 25.298882
-63.573391 29.582509 22.541980
53.622288 30.453638 19.699535
27.717963 32.001649 14.237365
-61.173301 29.709404 21.746274
-42.909018 30.239503 19.618249
-37.940658 28.399368 25.669965
-16.915107 28.997325 23.325011
48.859260 29.597436 21.343573
-57.241330 29.381541 21.669911
-37.092488 28.042815 26.107711
-59.899574 29.362536 21.343573
-16.569900 28.767188 23.325011
12.998932 31.122444 15.070254
-35.385022 27.858684 25.600960
-23.282945 30.038618 18.691933
-25.213137 29.797344 18.691933
48.579043 28.913310 21.669911
53.188058 29.402837 19.618249
-57.592504 28.796252 21.669911
-43.865207 29.163789 19.618249
52.109202 28.896921 20.528280
-16.800038 27.846638 23.325011
62.064810 30.525754 13.678115
-59.769707 28.071878 21.746274
-34.935901 26.934453 25.298882
14.684111 29.865989 15.526311
75.879879 31.160294 10.587114
-25.575048 28.832247 18.691933
-49.934815 26.948948 24.854220
41.824544 27.497904 22.935061
14.061903 29.617106 15.526311
48.662829 27.857707 21.266258
-59.711877 27.857707 21.266258
51.398622 28.067911 20.528280
59.878077 30.324520 12.154756
-60.839175 27.600784 21.343573
52.012808 27.970274 20.035341
50.359559 27.597510 20.937588
64.887504 29.644683 13.205908
76.915393 30.453810 10.781240
58.936224 30.048447 11.764055
-61.221300 27.274499 21.669911
-16.097146 26.790250 23.399177
74.900885 30.351141 10.683124
-58.600045 27.019183 21.746274
64.851394 29.132462 13.678115
76.073247 29.960354 10.683124
52.607920 27.256139 20.035341
60.537595 29.558868 11.668589
-12.347524 26.558824 22.145730
-14.501230 26.334233 22.541980
-32.925467 25.457836 24.924891
-57.902921 26.426283 21.343573
-33.629569 25.363715 24.854220
76.554639 29.313229 10.183709
-9.416760 27.271915 17.311924
-25.583667 26.917413 18.182229
-57.898248 25.849521 21.746274
-61.056335 25.849521 21.746274
-44.157326 26.184938 20.035341
-53.885652 25.936171 20.528280
75.900326 28.658916 10.183709
-4.683761 26.869996 16.512092
-54.155331 25.615589 21.746274
-7.569803 26.494310 17.479990
-24.715049 26.168876 18.263275
58.978621 27.754645 12.154756
-55.597870 25.154216 21.266258
-8.720593 26.038952 16.871217
-55.953693 24.816282 21.669911
-9.661351 25.926664 17.311924
51.084392 25.127358 20.449013
-58.020372 24.781981 21.343573
52.949011 25.099982 19.618249
-44.498438 25.000466 19.538596
59.736117 26.734151 12.636621
-22.534310 25.199658 18.263275
-58.771533 24.331415 21.266258
48.508888 22.166313 29.969027
-3.684757 25.302001 16.871217
-8.966243 25.056350 16.871217
58.721634 26.212721 12.154756
51.677018 24.179155 20.449013
-8.431499 24.683519 17.395084
73.326480 26.215839 11.083365
-41.627571 24.043511 19.538596
-7.615165 24.687875 16.871217
70.211439 26.182744 10.683124
-7.123864 24.687875 16.871217
72.686425 26.182744 10.683124
-26.802767 24.146637 18.611917
75.596191 25.933513 11.178064
-44.430631 23.704278 19.956688
-3.439107 24.442224 16.871217
-23.261223 23.988136 18.263275
-25.454411 23.886130 18.691933
73.391842 25.674178 11.178064
-0.986875 24.301809 16.426744
59.364103 25.313264 12.154756
-45.777587 23.426650 19.618249
51.893785 23.447421 20.035341
53.095745 23.544720 19.117026
-19.954163 23.847658 17.831007
-41.516517 23.130631 20.371341
-43.954163 23.108693 19.956688
-26.199101 23.422238 18.611917
-2.592657 23.827750 16.343199
-0.371695 23.912354 15.978458
-3.930408 23.705273 16.871217
49.927605 22.780207 20.859305
-34.716449 23.064215 19.117026
59.504971 24.782981 11.668589
-61.902239 22.382730 22.070305
-38.188513 22.984936 19.460590
3.454064 23.685012 16.426744
51.935000 22.751342 19.956688
-60.853048 22.266154 22.070305
12.642257 22.358065 21.669911
50.965867 22.519802 20.449013
-44.668865 22.513108 19.956688
32.150156 22.015868 22.145730
67.120575 24.395747 11.668589
52.871800 22.488458 19.538596
-46.098269 22.274874 19.956688
-41.301057 22.386370 19.460590
-34.263005 22.481340 19.038023
72.937135 24.398899 11.083365
74.119311 24.359071 10.683124
-54.775069 21.863010 21.266258
-6.970848 22.746978 17.311924
-11.006602 22.746978 17.311924
12.876373 21.772776 21.669911
-25.936959 22.438485 18.691933
-27.290183 22.120677 19.038023
-7.246690 22.477020 16.871217
-45.549551 21.707208 20.371341
-33.805292 21.973440 18.611917
-41.540483 21.787804 19.460590
-33.493448 21.770741 19.538596
58.978621 23.257365 12.154756
-37.440890 21.531502 19.538596
-18.187441 21.703680 18.182229
-3.700783 22.081339 16.426744
-23.055540 21.720746 18.102901
-45.145333 21.202821 19.956688
-45.621801 21.202821 19.956688
1.480313 21.957980 16.426744
2.097110 21.957980 16.426744
-26.298870 21.473389 18.691933
-2.702155 21.862894 16.871217
71.249978 23.101086 11.083365
-58.294851 20.719254 21.669911
-40.909854 21.172644 19.538596
31.554676 20.533741 22.541980
5.901608 20.773661 20.859305
-21.703680 21.339931 18.182229
3.083986 21.711261 16.426744
-32.099026 21.038687 19.038023
-29.430900 21.142197 19.117026
-4.421709 21.494418 16.871217
-41.127294 20.861671 19.879661
-16.732446 21.097432 18.182229
30.742607 20.185712 22.541980
-7.582326 21.279431 17.311924
-2.581411 21.265914 16.788753
-39.026506 20.710385 19.460590
-29.791278 20.781819 19.117026
-10.395125 21.157136 17.311924
51.655740 20.590883 20.035341
-1.358058 21.235093 16.343199
29.960217 20.167773 22.070305
-39.594040 20.574546 19.538596
-14.734217 20.822736 17.748913
1.233594 21.217823 16.426744
-45.026216 20.369002 19.956688
-41.540483 20.351245 19.460590
-36.547205 20.317361 19.038023
67.049764 21.833160 11.575176
-38.440359 20.181188 19.117026
-35.492631 20.212753 18.960698
-31.978805 20.197140 19.038023
-9.254549 20.457425 17.748913
-7.704622 20.545658 17.311924
-53.876423 19.644897 21.190503
-31.352918 19.940936 19.117026
-25.112503 20.041709 18.611917
-6.878214 20.266166 16.871217
34.610351 18.909629 23.711866
-26.929520 19.836477 19.038023
-10.358692 20.108049 17.668557
-58.871244 19.118582 22.070305
-18.022017 19.970344 17.748913
37.828451 18.630228 24.547960
58.464646 21.072971 12.154756
70.020485 21.265481 11.178064
-24.629570 19.679509 18.611917
-14.490676 19.970344 17.748913
48.780372 19.277063 21.266258
-13.151202 19.848573 17.748913
-0.986875 20.107588 16.426744
-24.991769 19.679509 18.611917
-3.441882 19.913746 16.788753
3.097455 19.947612 15.978458
-24.991769 19.438043 18.611917
-12.907661 19.605032 17.748913
-38.637084 19.139113 19.538596
-0.740157 19.737510 16.426744
0.982602 19.774865 16.871217
-45.312313 18.978979 20.371341
-39.146219 19.154113 19.460590
71.120196 20.765021 11.083365
-39.744785 19.034400 19.460590
-13.881824 19.361492 17.748913
36.124466 18.175832 24.547960
-35.435110 19.034400 19.460590
-19.800242 19.196577 18.611917
-17.944942 19.278688 18.182229
-43.715929 18.939599 19.956688
34.865800 18.121041 23.640042
72.750812 20.599692 10.587114
-44.192397 18.820482 19.956688
-9.905942 19.322702 17.311924
-6.359370 19.322702 17.311924
-36.632242 18.914687 19.460590
-33.280272 18.914687 19.460590
-22.335639 19.075843 18.611917
-21.339931 19.036188 18.182229
27.391362 19.726806 14.522172
36.974981 17.861760 24.406326
-33.971926 18.780255 19.538596
-31.713296 18.739675 19.117026
-3.933579 19.176200 16.788753
-8.322752 19.093373 17.230524
69.173475 20.245895 11.083365
-12.907661 18.996181 17.748913
-33.519698 18.555547 19.460590
-24.404877 18.634266 19.038023
33.139800 17.835657 23.325011
-28.372173 18.514045 19.038023
-26.830023 18.648671 18.960698
-4.773343 18.848586 17.230524
-42.405642 18.344014 19.956688
-33.060794 18.514045 19.038023
-27.290183 18.514045 19.038023
0.616797 18.997353 16.426744
35.326107 17.720588 23.325011
68.470857 19.895306 11.575176
-43.063004 18.301777 19.538596
14.011993 19.095991 15.893813
-9.301899 18.726192 17.230524
-22.188678 18.429940 18.182229
59.492596 19.402553 12.154756
69.692601 19.596988 11.083365
-43.835046 17.986663 19.956688
-19.521187 18.187441 18.182229
-15.708380 18.265558 17.748913
69.303257 19.467207 11.083365
-39.984212 17.956981 19.460590
-13.638283 18.143788 17.748913
-11.446416 18.265558 17.748913
67.695715 19.378544 11.575176
-27.169962 17.912939 19.038023
-18.551190 18.066191 18.182229
25.024647 18.737047 14.436016
14.383993 18.475991 15.893813
-54.111691 17.409849 21.190503
68.524569 19.207644 11.083365
-28.732836 17.672497 19.038023
2.963036 18.148597 16.343199
-40.292827 17.523804 19.879661
0.122924 18.069880 16.788753
9.540162 18.213037 15.978458
73.066917 19.077863 11.083365
-14.549953 17.823692 18.182229
-2.592657 18.025137 16.343199
3.700783 18.010478 16.426744
-27.530625 17.552276 19.038023
-10.594024 17.778477 17.748913
68.669511 18.845392 11.668589
-31.843713 17.358415 19.460590
-14.368906 17.656706 17.748913
-12.186696 17.670710 17.668557
73.857699 18.921142 10.493229
70.921400 18.704545 10.990763
-45.299628 17.166175 19.879661
-0.860470 17.701107 16.788753
3.086496 17.778218 16.343199
7.439996 17.855991 15.893813
13.450828 17.934437 15.440546
-26.087972 17.311834 19.038023
-9.254549 17.534936 17.748913
-8.567539 17.502258 17.230524
15.069909 17.809892 15.440546
-23.198844 17.157478 18.533599
67.954096 18.474212 11.575176
-0.370078 17.517040 16.426744
1.110235 17.517040 16.426744
69.622473 18.444760 10.990763
74.883856 18.428956 11.083365
-45.776466 16.808546 19.879661
20.890728 17.638280 14.983350
24.538487 17.777884 14.898329
66.791383 18.345022 11.575176
73.262174 18.283127 11.178064
-13.394743 17.047854 17.748913
10.176156 17.373925 15.811006
-13.039765 17.061375 17.668557
71.898884 18.169393 11.083365
-41.842551 16.689337 19.879661
-35.913963 16.759849 19.460590
-3.671802 17.135078 17.230524
12.151994 17.359992 15.893813
28.773494 17.590783 14.522172
-23.682153 16.794996 18.533599
-2.458487 17.086486 16.788753
-19.920976 16.781913 18.611917
-7.465998 16.890291 17.230524
70.730852 17.909830 11.083365
-40.463064 16.400710 19.460590
-34.743889 16.470287 19.038023
25.129689 17.213837 14.522172
27.140065 17.213837 14.522172
-14.186204 16.611196 18.182229
-11.821095 16.695774 17.668557
68.858428 17.699071 11.575176
-23.905171 16.419713 18.611917
-22.836362 16.553342 18.533599
-0.491697 16.717712 16.788753
-13.638283 16.560773 17.748913
31.060743 17.102271 14.436016
74.754075 17.520486 11.083365
-34.142784 16.229845 19.038023
-17.352328 16.381568 18.102901
-36.835750 16.093289 19.879661
5.802613 16.543619 16.343199
6.301462 16.556782 16.261470
70.271936 17.405618 10.990763
-39.265932 15.921857 19.460590
-12.186696 16.208306 17.668557
57.482711 17.027173 12.545714
-33.661900 15.869181 19.038023
23.036131 16.651116 14.898329
28.773494 16.711244 14.522172
-42.915437 15.735660 19.879661
-33.181015 15.869181 19.038023
9.919995 16.367992 15.893813
-38.188513 15.682430 19.460590
-35.011375 15.761134 18.960698
11.035995 16.243992 15.893813
-40.582778 15.682430 19.460590
-28.853057 15.748960 19.038023
-43.358578 15.604323 19.956688
32.083374 16.420624 13.969651
72.552793 16.963783 10.493229
58.073228 16.628898 12.636621
-36.033676 15.443004 19.460590
11.894228 15.982869 15.978458
58.506902 16.643101 12.545714
-43.034647 15.378032 19.879661
-41.246504 15.378032 19.879661
-30.415931 15.508518 19.038023
-28.372173 15.508518 19.038023
-39.577570 15.378032 19.879661
-63.089600 14.871950 22.394481
-3.073109 15.734318 16.788753
-23.220603 15.400192 18.960698
57.872015 16.332769 12.062607
-6.854031 15.543964 17.230524
30.416022 16.028360 14.056964
-13.770967 15.355237 17.668557
10.167995 15.623993 15.893813
-29.333941 15.147855 19.038023
-21.386434 15.224241 18.533599
-40.582778 14.964151 19.460590
-27.891288 15.147855 19.038023
-15.720838 15.233370 17.668557
69.822040 16.291809 11.483835
73.129575 16.236584 10.990763
-38.427940 14.964151 19.460590
-35.342465 14.975621 19.384241
-62.973413 14.523389 22.394481
-21.369774 15.091648 18.611917
-40.888875 14.781984 19.879661
-39.535639 14.855816 19.384241
0.000000 15.242620 16.788753
8.148350 15.309021 16.343199
-27.672221 14.918936 18.960698
69.433038 15.963110 11.083365
-31.497920 14.787192 19.038023
-24.286290 14.861759 18.533599
7.166368 15.197643 16.261470
-41.008084 14.662774 19.879661
-40.702491 14.605011 19.460590
-23.301505 14.850182 18.611917
6.177904 15.074085 16.261470
-17.581193 14.792452 18.182229
-32.219247 14.546750 19.038023
69.504379 15.632026 11.575176
-42.319390 14.424355 19.879661
3.073109 14.873847 16.788753
-30.055268 14.426528 19.038023
4.568014 14.815182 16.343199
-42.677018 14.305146 19.879661
19.764881 14.886208 14.983350
66.791383 15.373645 11.575176
-36.991381 14.245872 19.460590
-35.462270 14.256791 19.384241
-17.702443 14.307454 18.182229
6.919252 14.579852 16.261470
12.895994 14.631993 15.893813
71.249978 15.184421 11.083365
-40.681352 13.958118 19.804273
-34.623636 14.017181 19.384241
1.728438 14.444802 16.343199
-37.589947 13.886732 19.460590
-11.333628 14.258435 17.668557
17.979991 14.507993 15.893813
-36.300905 13.897376 19.384241
10.920753 14.395538 15.811006
20.441869 14.458883 15.356642
-41.365713 13.709098 19.879661
-33.181015 13.825423 19.038023
-23.319671 13.895141 18.533599
9.423995 14.259993 15.893813
67.566525 14.986074 11.575176
-45.228524 13.651654 20.295278
-30.789877 13.777571 19.384241
28.797207 14.335727 14.436016
-3.196033 14.013377 16.788753
-33.545391 13.657766 19.384241
67.178954 14.598503 11.575176
-37.498955 13.537961 19.384241
-23.802981 13.653486 18.533599
32.821271 14.209975 14.436016
65.974097 14.532306 12.062607
-16.573907 13.649100 17.668557
-39.984212 13.407879 19.460590
-24.629570 13.522117 18.611917
-20.886841 13.522117 18.611917
67.882539 14.481608 11.483835
-14.682739 13.590634 18.102901
28.294199 13.958471 14.436016
58.000619 14.146492 12.062607
-23.923808 13.291004 18.533599
-2.212638 13.521679 16.788753
-1.598017 13.521679 16.788753
-37.259345 13.178546 19.384241
57.486201 14.017888 12.062607
22.910935 13.521207 14.898329
20.192577 13.461718 15.356642
3.441882 13.275830 16.788753
-44.397554 12.701974 20.295278
-1.720941 13.152906 16.788753
58.506902 13.698552 12.545714
23.536916 13.396011 14.898329
28.545703 13.329711 14.436016
-35.102856 12.699327 19.384241
-1.592358 12.983846 17.150896
14.209592 13.087782 15.356642
-43.630695 12.517003 19.879661
-29.236303 12.632970 18.960698
-23.923808 12.686868 18.533599
-14.076014 12.741220 18.102901
14.820819 12.952649 15.440546
21.784167 13.020422 14.898329
-44.141057 12.287916 19.804273
-19.453197 12.566040 18.533599
-3.794196 12.728915 17.230524
-1.975358 12.716364 16.343199
-17.473672 12.498530 18.102901
-4.409608 12.616379 17.150896
56.842591 13.186457 12.545714
-41.993654 12.168616 19.804273
-15.046774 12.498530 18.102901
-13.527233 12.430430 17.668557
-10.236825 12.552297 17.668557
14.073551 12.703559 15.440546
66.145431 13.177410 11.575176
-12.552297 12.430430 17.668557
-5.874884 12.484128 17.230524
-44.516264 12.108424 20.295278
-30.886008 12.210747 19.460590
21.032989 12.644833 14.898329
-1.358058 12.345985 16.343199
20.281811 12.519636 14.898329
32.841249 12.631250 13.969651
-32.605095 12.031400 18.960698
0.860470 12.292436 16.788753
-46.415625 11.871004 20.295278
-37.589947 11.971321 19.460590
-8.812326 12.116948 17.230524
-6.854031 12.116948 17.230524
55.434329 12.674362 12.545714
-19.090715 11.841077 18.533599
-46.925806 11.523552 20.220835
-39.815989 11.563326 19.879661
-37.019735 11.621082 19.384241
-2.937442 11.872161 17.230524
-46.253305 11.444117 19.879661
67.499059 12.307159 13.499181
72.807354 12.588794 11.083365
-27.091104 11.558871 18.885063
21.439033 11.965972 15.356642
33.626415 12.135849 13.884283
-21.160892 11.608261 18.456992
-20.264606 11.649115 18.102901
20.782596 11.893655 14.898329
-24.527944 11.357767 18.533599
-24.044635 11.236940 18.533599
-13.283499 11.333628 17.668557
-36.716541 11.086488 19.879661
-13.892834 11.211761 17.668557
0.000000 11.186116 16.788753
-22.473880 10.995285 18.533599
21.658971 11.392869 14.898329
-17.001349 11.050877 18.025303
3.813661 11.194939 16.708084
-10.236825 10.968027 17.668557
-40.103925 10.654476 19.460590
-21.023952 10.874458 18.533599
-29.236303 10.707946 18.960698
-14.502169 10.846160 17.668557
22.516953 11.133382 14.983350
-41.093104 10.542837 19.384241
-16.573907 10.724293 17.668557
-30.415931 10.579454 19.038023
-27.911109 10.632803 18.533599
-14.391449 10.732606 17.589953
-6.854031 10.770620 17.230524
35.367499 11.115500 13.969651
-10.602426 10.724293 17.668557
-17.716362 10.557010 18.102901
-15.410808 10.557010 18.102901
-9.921618 10.656553 17.150896
66.201638 11.249106 11.483835
-23.682153 10.391149 18.533599
-19.172502 10.435666 18.102901
1.476256 10.579833 16.708084
20.566514 10.719516 15.356642
34.988561 10.862875 13.969651
-16.272720 10.443686 18.025303
50.979344 10.960559 13.024554
66.415788 11.069298 11.972504
-35.102856 10.183422 19.384241
-8.567539 10.281047 17.230524
-44.737557 10.021213 19.804273
-21.644570 10.157228 18.456992
-5.385310 10.281047 17.230524
2.965394 10.255320 16.261470
31.815255 10.563168 14.436016
14.271438 10.300255 15.811006
30.809239 10.437416 14.436016
-41.397153 9.901913 19.804273
-25.513990 9.915389 18.456992
-17.914444 9.993091 17.668557
-15.896188 9.950286 18.102901
-3.441882 10.079797 16.788753
47.322443 10.331854 12.936861
-51.562792 9.535585 21.116319
-4.777075 9.921618 17.150896
22.810134 10.096289 15.356642
-51.741492 9.418114 22.323004
2.224045 9.884646 16.261470
-13.347944 9.707596 18.102901
-3.933579 9.833949 16.788753
27.042415 10.015709 14.898329
36.630624 10.105000 13.969651
72.999682 10.391414 10.990763
-17.365664 9.715057 18.025303
-31.161327 9.504806 18.960698
-27.070651 9.504806 18.960698
-2.458487 9.711024 16.788753
30.934991 9.934408 14.436016
-10.036260 9.546686 17.230524
-23.440499 9.424530 18.533599
-22.715535 9.424530 18.533599
-0.861149 9.595662 16.708084
-47.557799 9.227633 20.633969
-41.246504 9.298345 19.879661
-29.236303 9.384492 18.960698
-30.319129 9.264178 18.960698
-20.628641 9.343561 18.102901
-13.649100 9.383756 17.668557
36.125374 9.726062 13.969651
-22.206125 9.222216 18.102901
-7.471836 9.309173 17.150896
17.325730 9.473061 15.356642
24.181235 9.597707 15.356642
57.405894 9.782170 11.972504
73.326480 9.863385 11.083365
-6.246945 9.309173 17.150896
23.308716 9.473061 15.356642
-48.859132 8.872724 20.633969
-2.337405 9.226598 16.708084
36.660377 9.481132 13.884283
-5.634499 9.186684 17.150896
0.367467 9.186684 17.150896
-0.861149 9.103577 16.708084
29.701363 9.313139 14.351781
56.505632 9.481671 12.456827
-47.995139 8.747882 20.707484
8.935161 9.059261 15.811006
20.441869 9.099124 15.356642
-46.925806 8.672364 20.220835
1.606255 8.896181 16.261470
-17.851417 8.743551 18.025303
-9.669080 8.689932 17.230524
-5.022054 8.819216 17.150896
-3.936682 8.734513 16.708084
0.123021 8.857534 16.708084
5.436555 8.772623 16.261470
56.505632 9.097279 12.456827
19.029847 8.763745 14.898329
34.384906 8.849057 13.884283
49.714705 8.969148 12.456827
66.791383 9.043321 11.575176
69.046240 9.051005 11.483835
-28.995675 8.421980 18.960698
-5.512010 8.574238 17.150896
-23.220603 8.421980 18.960698
21.676254 8.645442 14.815207
-11.830259 8.415339 17.589953
-0.615107 8.488470 16.708084
23.054513 8.645442 14.815207
73.313142 8.921705 11.483835
-12.917898 8.408820 17.668557
-6.001967 8.329260 17.150896
-4.164630 8.451749 17.150896
11.053511 8.445380 15.730051
53.558626 8.712887 12.456827
-31.963427 8.140498 19.460590
24.182179 8.520146 14.815207
68.141139 8.792405 11.483835
-12.308563 8.165087 17.668557
-10.403440 8.200359 17.230524
-6.859390 8.206771 17.150896
5.065881 8.278391 16.261470
6.548578 8.278391 16.261470
-16.381568 8.130111 18.102901
19.070768 8.226606 15.356642
22.302735 8.269553 14.815207
-37.065446 7.721968 20.220835
24.162898 8.137764 14.898329
35.143396 8.216981 13.884283
66.460238 8.404505 11.483835
67.243299 8.373208 11.884463
-27.935470 7.793157 19.309563
-5.756988 7.961792 17.150896
-4.899565 7.839303 17.150896
11.417151 7.942366 15.811006
29.575510 8.054607 14.351781
51.998931 8.156695 13.024554
56.377501 8.072233 12.456827
19.818641 7.852669 15.356642
46.557121 8.035887 12.936861
-37.383742 7.453088 20.633969
-9.993091 7.677619 17.668557
3.830300 7.660600 16.261470
36.281132 7.964151 13.884283
50.355359 7.944102 12.456827
-63.688559 7.179438 22.718755
27.539687 7.670872 14.436016
57.148469 7.851479 11.972504
-14.936900 7.407731 18.025303
5.317126 7.542900 16.181571
7.818266 7.445968 15.811006
-35.909346 7.158009 19.804273
11.168952 7.445968 15.811006
-20.798134 7.134244 18.456992
30.054727 7.419368 14.436016
47.449997 7.525672 12.936861
20.532204 7.261389 14.898329
21.065096 7.229441 15.356642
-47.557799 6.861573 20.633969
10.424355 7.073669 15.811006
22.062261 7.229441 15.356642
-17.926787 6.857898 18.960698
50.342103 7.264557 13.024554
11.614459 7.042810 16.261470
31.589161 7.047781 14.351781
47.491236 7.237969 13.412661
1.969857 6.894501 16.629222
48.597981 7.143010 12.936861
55.141078 7.181164 12.369976
-47.242021 6.597389 21.043718
29.425967 6.916360 14.436016
26.407919 6.916360 14.436016
-18.408043 6.496956 18.960698
36.407547 6.826415 13.884283
57.148469 6.950489 11.972504
4.077416 6.548578 16.261470
15.276201 6.706625 15.730051
-20.934637 6.376642 18.960698
70.597840 6.852904 11.483835
47.491236 6.730041 13.412661
6.054346 6.425020 16.261470
7.289926 6.425020 16.261470
-14.994004 6.166889 18.456992
18.337387 6.361950 15.274613
27.916943 6.413352 14.436016
44.062724 6.476078 13.412661
-25.506569 6.136014 18.960698
-10.720758 6.008337 21.043718
34.862249 6.315625 13.969651
37.514811 6.441937 13.969651
42.884740 6.470774 13.499181
-17.157478 6.041366 18.533599
26.562808 6.264813 14.815207
31.815255 6.161848 14.436016
-3.221104 5.845707 19.804273
-10.249516 5.772716 21.043718
-30.693048 5.754947 19.309563
-11.898863 5.654905 21.043718
10.308331 5.961444 15.730051
18.586875 5.987718 15.274613
19.709572 5.987718 15.274613
-26.248269 5.659031 18.885063
9.143297 5.930787 16.261470
21.175069 5.888924 14.815207
45.840471 5.968150 13.412661
56.761893 6.022142 12.456827
68.658339 6.077103 11.483835
6.795694 5.683671 16.261470
15.705338 5.733695 15.356642
-2.732389 5.464777 20.220835
7.542900 5.688089 16.181571
18.073603 5.733695 15.356642
-30.430462 5.391224 19.384241
-4.377210 5.441937 20.633969
12.723901 5.613486 15.274613
-3.917431 5.341952 20.295278
-1.073701 5.368507 19.804273
36.913208 5.688679 13.884283
38.207632 5.693190 13.800877
-15.665529 5.343281 18.025303
34.609639 5.663395 14.351781
50.766394 5.612365 12.936861
-50.767020 4.938873 23.500773
-26.709709 5.293816 18.960698
29.945807 5.513036 14.815207
31.840868 5.537542 14.351781
68.974114 5.564516 11.394582
53.302364 5.509619 12.456827
-1.544394 4.989579 20.220835
41.777050 5.333240 13.412661
52.149188 5.381489 12.456827
56.633762 5.381489 12.456827
33.854520 5.285836 14.351781
-0.477201 4.891306 19.804273
35.775472 5.183019 13.884283
39.205280 5.201995 13.499181
-60.405051 4.790343 21.853221
32.218428 5.159983 14.351781
-60.054539 4.673505 21.853221
-27.935470 4.915684 19.309563
17.076439 4.985822 15.356642
31.337455 5.034129 14.351781
-26.736522 4.795789 19.309563
-1.183030 4.732119 20.633969
2.982504 4.772006 19.804273
13.721854 4.865021 15.274613
-50.767020 4.479443 23.500773
32.973547 4.908276 14.351781
-60.605460 4.519336 22.649662
-9.945090 4.343832 23.955183
18.696831 4.736531 15.356642
38.935849 4.803774 13.884283
69.563440 4.913403 11.483835
26.813401 4.761258 14.815207
30.582336 4.656570 14.351781
70.080640 4.913403 11.483835
-17.170552 4.474017 18.456992
-1.301333 4.377210 20.633969
15.967248 4.615533 15.274613
-24.683006 4.334577 18.885063
33.881126 4.534277 14.269482
-7.097341 4.006563 23.820505
56.891043 4.504947 11.972504
72.468112 4.529257 11.394582
-22.154503 4.214172 18.885063
69.175578 4.508650 11.884463
-12.473526 3.855453 24.717084
48.342873 4.336828 12.936861
68.529039 4.396203 11.483835
-37.897397 3.522857 30.243943
6.948688 3.953564 19.384241
64.742522 4.247521 11.972504
0.593998 3.801584 20.220835
3.326386 3.801584 20.220835
9.105178 3.833759 19.384241
10.467318 3.850048 18.960698
37.798113 4.045283 13.884283
-64.081873 3.708173 22.649662
-7.400362 3.529403 24.337641
13.354854 3.729734 18.960698
5.607107 3.579005 19.804273
-11.452965 3.288475 24.717084
68.787639 3.749702 11.483835
-26.248269 3.491742 18.885063
-11.707518 3.264596 25.402192
33.099400 3.649744 14.351781
7.673262 3.476947 19.309563
64.666927 3.735739 11.884463
69.304840 3.620402 11.483835
4.989579 3.326386 20.220835
6.538786 3.328836 20.148022
26.177472 3.398037 14.351781
31.098113 3.286792 13.884283
29.319326 3.132407 14.815207
64.742522 3.089106 11.972504
-10.051948 2.597694 25.093547
31.966721 2.894624 14.351781
-24.923815 2.769313 18.885063
-4.212514 2.618590 24.337641
66.158363 2.960394 11.972504
-3.203009 2.516650 23.887114
-24.321791 2.648908 18.885063
-8.922516 2.371808 25.093547
-5.896576 2.381309 24.717084
-3.870959 2.390886 24.337641
14.637859 2.519631 19.236567
17.940331 2.528503 18.885063
30.456482 2.517065 14.351781
-1.029539 2.287864 23.887114
34.258983 2.519043 14.269482
66.287075 2.574255 11.972504
-21.370591 2.387775 19.730535
70.138780 2.458740 11.394582
-31.160470 2.268387 19.730535
17.458711 2.287693 18.885063
30.959895 2.265358 14.351781
34.636839 2.393091 14.269482
69.304396 2.318734 11.884463
-6.581582 1.929084 24.650639
19.468021 2.055630 18.456992
-18.301546 2.046883 18.885063
-3.744693 1.815609 24.650639
70.856441 1.939501 11.483835
-12.149387 1.687415 25.467064
70.468540 1.939501 11.483835
-9.493860 1.582310 25.027894
-10.980793 1.568685 25.837669
-10.124489 1.462426 25.467064
-30.932838 1.438737 19.309563
-9.449523 1.462426 25.467064
0.571966 1.372718 23.887114
-32.831913 1.432665 19.730535
-8.662063 1.349932 25.467064
3.431796 1.372718 23.887114
-10.349478 1.237438 25.467064
-7.312131 1.349932 25.467064
-13.494087 1.247353 24.717084
-4.762619 1.133957 24.717084
-0.113933 1.139325 24.270390
26.458106 1.253939 14.733997
-32.712524 1.193888 19.730535
-6.329240 1.017199 25.027894
-3.858169 1.021280 24.650639
7.842138 1.037930 23.111333
27.331615 1.133569 14.269482
-53.189113 1.042924 22.649662
-11.586915 1.012449 25.467064
-12.261881 0.899955 25.467064
-6.974648 0.787460 25.467064
7.350881 0.918860 23.500773
12.630966 0.811163 22.649662
65.568657 0.901730 11.884463
-23.840171 0.722429 18.885063
-7.312131 0.674966 25.467064
11.186579 0.691953 23.111333
3.889368 0.686359 23.887114
7.810311 0.574288 23.500773
66.985662 0.772911 11.884463
-30.205360 0.477555 19.730535
-11.653087 0.448196 25.837669
-11.092842 0.448196 25.837669
0.794329 0.453902 24.650639
1.139325 0.341798 24.270390
-20.468834 0.361215 18.885063
-13.336613 0.339066 25.027894
-7.537120 0.337483 25.467064
11.647882 0.345977 23.111333
-21.070858 0.361215 18.885063
14.937862 0.231595 22.718755
-19.505595 0.240810 18.885063
16.223259 0.115880 22.649662
-5.624716 -0.000000 25.467064
-3.374830 0.112494 25.467064
9.188601 -0.000000 23.500773
21.965473 -0.000000 21.853221
-6.074694 -0.000000 25.467064
-0.793770 -0.113396 24.717084
-9.598199 -0.111607 26.205396
-6.391180 -0.112126 25.773565
9.877746 -0.114858 23.500773
0.794329 -0.226951 24.650639
24.201386 -0.240810 18.885063
65.439839 -0.257637 11.884463
70.268187 -0.258815 11.394582
-11.474421 -0.224989 25.467064
12.634326 -0.229715 23.500773
13.608416 -0.345977 23.111333
20.013418 -0.349071 22.253055
33.755174 -0.377856 14.269482
-4.706054 -0.448196 25.837669
0.339066 -0.452089 25.027894
17.253810 -0.463190 22.718755
-6.274739 -0.672293 25.837669
6.949885 -0.683595 24.270390
-8.105205 -0.788006 25.402192
-2.589163 -0.675434 25.402192
0.565111 -0.791155 25.027894
3.177315 -0.794329 24.650639
-25.177891 -0.959158 19.309563
-11.594946 -0.900578 25.402192
4.198595 -0.907804 24.650639
8.814440 -0.915786 23.820505
-4.372912 -0.897008 25.773565
-10.764092 -1.009134 25.773565
36.245731 -1.132679 14.351781
3.404266 -1.134755 24.650639
13.093756 -1.148575 23.500773
-31.041081 -1.193888 19.730535
18.811437 -1.154076 23.043081
19.801352 -1.273771 22.718755
-21.568383 -1.325431 18.811131
21.758775 -1.279928 22.253055
68.402666 -1.545823 11.884463
-36.022766 -1.426644 20.148022
6.835953 -1.367191 24.270390
-27.101252 -1.432665 19.730535
-12.149387 -1.349932 25.467064
12.864041 -1.493148 23.500773
-5.065753 -1.463440 25.402192
6.354631 -1.475182 24.650639
3.729731 -1.582310 25.027894
8.658874 -1.595056 24.270390
-25.297786 -1.678526 19.309563
-14.411394 -1.588658 24.650639
-4.502892 -1.576012 25.402192
7.148959 -1.588658 24.650639
16.769197 -1.608005 23.500773
17.113769 -1.608005 23.500773
4.539022 -1.702133 24.650639
9.570334 -1.595056 24.270390
10.066601 -1.715898 23.887114
63.894016 -1.932279 11.884463
-31.435402 -1.799737 19.236567
-10.806940 -1.688584 25.402192
0.113022 -1.695332 25.027894
6.722020 -1.708988 24.270390
5.082446 -1.694149 25.093547
-12.945814 -1.801157 25.402192
-2.147421 -1.921376 25.027894
18.811437 -1.961929 23.043081
25.429809 -1.910220 19.730535
14.184755 -1.944684 23.887114
14.985508 -1.944684 23.887114
16.206335 -1.953955 23.433350
23.758366 -2.029609 19.730535
20.148744 -2.084353 22.718755
-28.554620 -2.150557 19.658460
24.338628 -2.158105 19.309563
37.954601 -2.277276 13.800877
-30.310657 -2.156489 19.384241
-23.876508 -2.159684 19.236567
15.682834 -2.060518 23.820505
-4.856559 -2.145921 25.093547
3.971644 -2.269511 24.650639
12.313257 -2.280233 24.204584
12.988310 -2.392584 24.270390
17.700536 -2.298771 23.433350
24.474699 -2.387775 19.730535
-13.562657 -2.373465 25.027894
-50.482700 -2.403938 23.820505
0.226044 -2.373465 25.027894
13.727183 -2.516650 23.887114
-12.319413 -2.486487 25.027894
31.223073 -2.758665 14.733997
6.581582 -2.609938 24.650639
11.120604 -2.496462 24.650639
14.251455 -2.508256 24.204584
66.212750 -2.962827 11.884463
29.991908 -2.886251 14.654714
37.281834 -2.896899 14.269482
12.427268 -2.736279 24.204584
15.557474 -2.745437 23.887114
19.042252 -2.769782 23.043081
69.617824 -2.965204 11.798499
13.330108 -2.734381 24.270390
20.380339 -2.779137 22.718755
-10.963148 -2.712531 25.027894
-10.285015 -2.825554 25.027894
-7.572483 -2.712531 25.027894
6.018345 -2.838842 24.585621
-9.832926 -2.825554 25.027894
14.023431 -2.850291 24.204584
-58.452530 -2.910983 22.184645
-14.297919 -2.950364 24.650639
10.893652 -2.950364 24.650639
28.715195 -3.134847 14.733997
30.606371 -3.274756 14.269482
35.677325 -3.289399 13.800877
-25.057996 -3.117263 19.309563
14.935525 -2.964303 24.204584
2.164718 -3.076179 24.270390
-12.545458 -3.051598 25.027894
65.697476 -3.478102 11.884463
25.687211 -3.345311 19.658460
16.520219 -3.190111 24.270390
18.492059 -3.216010 23.500773
-28.175751 -3.342886 19.730535
-10.511059 -3.277642 25.027894
-6.472560 -3.293057 24.585621
-29.151997 -3.464787 19.658460
-28.793571 -3.464787 19.658460
69.621151 -3.752813 11.394582
-7.007373 -3.277642 25.027894
14.865297 -3.404266 24.650639
25.787975 -3.581663 19.730535
0.908429 -3.520164 24.585621
10.481794 -3.531909 24.270390
20.394954 -3.592293 22.649662
-0.226951 -3.517742 24.650639
1.481123 -3.645842 24.270390
16.472619 -3.660582 23.887114
19.503883 -3.577635 23.043081
-24.460233 -3.855800 18.811131
11.287152 -3.648372 24.204584
18.734983 -3.678033 23.433350
-12.255359 -3.744693 24.650639
-4.443369 -3.873707 24.270390
0.342035 -3.876396 24.204584
10.981746 -3.889368 23.887114
4.218431 -3.876396 24.204584
-0.912093 -3.990407 24.204584
-39.716136 -3.696981 31.180175
-5.696627 -4.101572 24.270390
-7.519548 -4.101572 24.270390
36.844443 -4.558075 13.719446
-9.000671 -4.215504 24.270390
14.642328 -4.232548 23.887114
24.371839 -4.398820 20.148022
-42.703240 -3.940199 30.461407
-2.506516 -4.329437 24.270390
13.155217 -4.346941 23.887114
29.592952 -4.639573 14.733997
19.388475 -4.385488 23.043081
17.917772 -4.479443 23.500773
-39.652947 -4.134933 30.850764
-4.560465 -4.446454 24.204584
11.332851 -4.464456 23.820505
13.727183 -4.461334 23.887114
28.715195 -5.015755 14.733997
34.384935 -5.164038 14.269482
7.177751 -4.671234 24.270390
18.964860 -4.712480 23.433350
20.858476 -4.751097 22.649662
-2.508256 -4.788489 24.204584
2.518411 -4.807876 23.820505
35.419687 -5.294046 14.189135
15.682834 -4.807876 23.820505
1.259206 -4.922349 23.820505
13.278896 -4.922349 23.820505
32.898713 -5.420094 14.189135
25.304295 -5.227178 20.220835
14.022503 -5.172235 23.433350
18.390167 -5.172235 23.433350
5.746927 -5.287173 23.433350
9.418316 -5.283446 23.500773
36.183386 -5.819705 13.800877
36.689448 -5.819705 13.800877
4.461334 -5.262087 23.887114
21.308392 -5.356208 22.184645
38.289452 -5.793799 14.269482
1.839017 -5.402112 23.433350
14.712134 -5.402112 23.433350
20.595204 -5.468783 22.253055
5.380242 -5.380242 23.820505
15.976458 -5.517050 23.433350
20.827918 -5.817854 22.253055
-50.455403 -5.472386 28.001985
-33.548246 -5.969439 19.730535
-32.855734 -6.093245 19.658460
11.034100 -5.746927 23.433350
13.102994 -5.976804 23.433350
20.944275 -6.050568 22.253055
31.874245 -6.525436 14.654714
35.419687 -6.554533 14.189135
67.583186 -6.544368 14.351781
18.424987 -6.141662 22.649662
21.191953 -6.171283 22.184645
20.478847 -6.283282 22.253055
15.002987 -6.347417 23.043081
-34.408915 -6.690622 19.658460
11.079129 -6.462825 23.043081
31.236131 -7.179272 14.269482
20.959074 -6.753480 22.184645
20.510834 -6.836945 22.649662
11.364240 -6.957698 22.582090
31.724648 -7.398238 14.733997
19.004389 -6.952825 22.649662
19.467911 -6.952825 22.649662
71.749694 -7.770725 11.307433
28.088226 -7.523632 14.733997
30.094528 -7.649026 14.733997
30.732323 -7.809033 14.269482
74.857984 -8.159261 11.307433
-32.975210 -7.646425 19.658460
18.733490 -7.563210 22.253055
29.467559 -8.150601 14.733997
-28.576219 -7.804429 19.165265
28.213620 -8.275995 14.733997
-14.038761 -7.852188 20.076853
29.969134 -8.401389 14.733997
20.027560 -7.917873 22.184645
34.537346 -8.571312 14.189135
-30.227276 -8.243802 19.658460
30.744842 -8.784241 14.654714
31.599254 -8.777571 14.733997
76.763493 -9.237641 10.811921
28.213620 -8.902965 14.733997
75.505544 -9.195358 11.307433
-24.836367 -8.638736 19.236567
35.140648 -9.320459 14.269482
41.022678 -9.369377 13.719446
39.045164 -9.446411 14.269482
-30.966043 -8.967001 19.588058
28.338781 -9.363033 15.194473
32.376201 -9.537176 14.654714
-29.035753 -9.358631 19.236567
27.860387 -9.619954 15.116235
-56.863081 -9.594182 21.716265
-30.607363 -9.923481 19.588058
-61.172821 -9.787651 22.117784
-15.323922 -10.215948 17.875351
44.715046 -10.731611 12.767521
4.722795 -10.172173 18.308956
-24.373833 -10.205792 19.165265
5.351211 -10.337566 17.875351
-26.174856 -10.205792 19.165265
30.995821 -10.792067 14.654714
41.402518 -10.888736 13.719446
27.712044 -10.783872 14.733997
66.317665 -11.224974 11.714629
-27.255469 -10.565997 19.165265
69.159452 -11.397063 11.307433
77.605889 -11.458588 10.725713
56.511734 -10.558456 19.236567
-55.810061 -10.413198 21.716265
23.487681 -11.119168 15.116235
-24.357273 -10.852250 18.738912
32.250712 -11.294024 14.654714
66.652620 -11.602971 11.798499
-56.978113 -10.603289 22.117784
-37.264559 -10.834105 20.007337
31.748756 -11.419513 14.654714
69.102136 -11.731893 11.798499
-35.628883 -10.999521 19.588058
-23.874950 -11.093411 18.738912
23.487681 -11.493971 15.116235
26.236239 -11.493971 15.116235
26.854679 -11.545002 14.654714
72.526766 -11.915112 11.307433
-61.153609 -10.791813 22.516049
-59.180912 -10.791813 22.516049
-24.236692 -11.334572 18.738912
-25.814651 -11.286406 19.165265
0.000000 -11.531362 16.997011
-37.183163 -11.358201 19.588058
26.081924 -11.912417 14.733997
-54.718965 -11.224403 21.783959
-33.214161 -11.469638 19.658460
-15.500454 -11.625341 18.308956
-38.428135 -11.540338 20.076853
28.235191 -12.118644 15.116235
28.484075 -12.189691 15.573752
67.220824 -12.515201 11.714629
-58.801847 -11.411052 22.184645
38.317900 -12.074451 16.552181
-25.814651 -11.886746 19.165265
-37.238409 -11.778283 20.076853
36.565478 -12.188493 16.629222
-36.073998 -11.786554 20.007337
-14.652773 -11.988633 18.308956
-33.118123 -11.956001 19.588058
28.978441 -12.383949 16.027315
65.066850 -12.833698 12.285176
37.265131 -12.258267 17.073054
-33.811538 -12.067015 19.658460
15.220993 -12.622287 16.103515
37.320036 -12.521854 16.922779
74.857984 -13.210232 11.307433
-35.597774 -12.262778 20.007337
-25.796227 -12.358192 19.236567
40.166030 -12.690494 16.552181
-34.791963 -12.434241 19.588058
39.919612 -12.813703 16.552181
69.359980 -13.278955 11.798499
-38.574177 -12.381834 20.007337
-36.193055 -12.381834 20.007337
-3.420032 -12.702976 17.438052
70.972621 -13.469257 11.307433
-40.044166 -12.321282 20.491788
-9.764303 -12.815647 17.513114
-25.934719 -12.727223 19.165265
-29.515683 -12.838122 19.236567
66.704733 -13.676406 11.714629
-39.050401 -12.739003 20.007337
-33.357243 -12.912481 19.588058
42.353106 -13.374665 16.027315
74.528208 -13.998342 11.222405
-28.096602 -12.912481 19.588058
-24.734038 -12.967360 19.165265
-37.833272 -12.968008 20.076853
-30.368243 -13.032041 19.588058
-18.448825 -13.143281 18.738912
-34.791963 -13.151601 19.588058
-23.754370 -13.384442 18.738912
-3.300266 -13.567759 17.364779
-36.944043 -13.271161 19.588058
-35.868003 -13.271161 19.588058
42.383786 -13.676164 16.552181
75.764568 -14.375841 11.307433
14.552999 -13.931076 15.573752
20.274691 -13.806691 15.573752
-51.047615 -13.113149 21.650148
-22.548564 -13.505022 18.738912
4.293592 -13.739495 16.997011
-33.955043 -13.510281 19.588058
-33.619570 -13.639256 19.519341
-20.619275 -13.746184 18.738912
19.916020 -14.314639 15.498435
23.487681 -14.367464 15.116235
47.483174 -14.220221 16.181571
-49.374939 -13.455256 21.716265
-0.613816 -14.117777 16.922779
-31.541505 -13.739671 19.658460
-1.841449 -14.240540 16.922779
14.666434 -14.417850 15.650962
6.379051 -14.230191 16.997011
24.362222 -14.492399 15.116235
-23.413288 -13.927905 19.165265
-33.453111 -13.978622 19.658460
49.940716 -13.978622 19.658460
23.237812 -14.742268 15.116235
26.486108 -14.742268 15.116235
72.324765 -15.424099 11.222405
75.652721 -15.495136 10.725713
-13.013172 -14.594211 17.875351
24.612091 -14.992137 15.116235
-15.026706 -14.541974 18.237552
14.241541 -14.860739 16.027315
25.831136 -15.172658 14.733997
28.005869 -15.003144 15.039915
76.412129 -15.541450 11.307433
48.509181 -14.973497 16.103515
77.345467 -15.885769 10.725713
-24.356437 -14.637859 19.236567
-27.379242 -14.705881 19.588058
6.011029 -15.088910 16.997011
25.097831 -15.560655 14.654714
28.381556 -15.572181 14.577371
-27.274457 -14.898822 19.095667
-8.878145 -15.080685 17.875351
-29.172643 -14.825441 19.588058
44.948991 -15.145856 17.438052
-23.773493 -15.008518 19.165265
-10.816114 -15.312701 17.949449
27.610518 -15.741744 15.116235
-21.387019 -15.139126 19.095667
-10.293271 -15.258260 18.308956
24.737026 -15.866678 15.116235
45.103630 -15.645704 17.364779
-8.756527 -15.567159 17.875351
-27.255469 -15.488791 19.165265
-1.222321 -15.767936 17.364779
-6.450384 -15.821697 17.803021
74.917050 -16.849856 11.222405
-21.612266 -15.608859 19.165265
-21.237089 -15.807152 18.668419
-4.641472 -16.123008 17.438052
-8.189548 -16.256864 17.364779
1.717437 -16.315650 16.997011
68.750970 -16.839556 13.719446
-13.936058 -16.359721 18.237552
7.120270 -16.573042 16.922779
-13.330143 -16.480904 18.237552
67.738065 -17.346009 13.719446
-4.746509 -16.795339 17.803021
-8.061504 -16.855872 17.438052
56.040157 -16.399120 20.903307
-6.351488 -17.100160 17.438052
-9.851093 -17.026580 17.875351
76.083579 -18.275613 11.222405
-8.154259 -17.282161 17.803021
-48.000276 -16.823626 21.179168
-7.545732 -17.403866 17.803021
-5.841857 -17.525572 17.803021
76.083579 -18.794070 11.222405
-48.556082 -17.047535 21.244507
-7.333924 -17.968113 17.364779
11.343514 -18.124963 16.476974
51.460072 -17.270846 21.311453
74.059027 -19.095359 11.714629
66.931864 -18.655209 14.189135
-48.556082 -17.635381 21.244507
10.850318 -18.494860 16.476974
-43.918599 -17.827173 20.835519
-3.300266 -18.457041 17.364779
27.275202 -18.892457 14.965523
-45.169975 -18.020567 20.423143
-48.320944 -17.988089 21.244507
-44.626963 -18.181355 20.835519
-1.227633 -18.905545 16.922779
2.086976 -18.905545 16.922779
-48.168786 -18.299416 20.835519
-49.057227 -18.264743 21.650148
13.250826 -19.566640 16.027315
18.671269 -19.791545 15.498435
-38.438352 -18.981902 20.356143
4.318553 -19.741958 16.403614
11.598400 -19.741958 16.403614
-41.020502 -19.087575 20.423143
3.191845 -19.764888 16.922779
5.293992 -19.944806 16.629222
5.799200 -19.988732 16.403614
9.370729 -19.974449 16.476974
13.439598 -19.974449 16.476974
2.200177 -19.923826 17.364779
-42.116095 -19.456450 20.356143
-24.828707 -18.424923 25.589571
24.397125 -20.413921 15.498435
3.439808 -20.147449 16.850371
25.005240 -20.629323 15.039915
4.054060 -20.270300 16.850371
22.016075 -20.523460 15.573752
22.654473 -20.538396 15.498435
16.110747 -20.448256 15.952985
26.111305 -20.739122 15.116235
-51.495312 -19.516488 21.244507
7.767841 -20.467645 16.476974
72.195151 -21.515970 11.222405
26.985846 -20.864057 15.116235
72.972836 -21.645584 11.222405
-51.081429 -19.565593 21.585619
20.309677 -20.928874 16.027315
-52.180841 -18.714648 27.470777
21.036296 -21.160771 15.498435
72.639783 -22.051363 11.139513
-42.412356 -20.201986 20.769356
9.418591 -21.315758 15.952985
-28.769471 -19.636305 24.077340
10.657879 -21.315758 15.952985
27.110781 -21.613664 15.116235
72.972836 -22.552884 11.222405
25.374460 -21.642921 15.573752
14.189532 -21.716154 16.403614
73.026845 -22.837017 11.714629
-43.865855 -21.103033 20.423143
22.629742 -22.254663 15.039915
-41.221626 -21.325639 19.939485
40.239589 -22.579581 14.110752
40.830163 -22.824315 13.562567
-51.315748 -21.088663 21.585619
73.288352 -23.478216 11.139513
21.783147 -22.529998 15.498435
-24.925062 -20.321785 25.649507
-23.143501 -20.447170 25.589571
27.024971 -22.645925 14.965523
-47.882628 -21.529535 21.179168
21.409722 -23.027898 15.498435
-44.626963 -21.841239 20.835519
39.356589 -23.462582 14.110752
-24.826356 -20.912291 26.019456
-41.550398 -22.437215 20.290798
56.908816 -22.382547 20.007337
39.006535 -23.858366 14.034348
41.091879 -23.823206 14.189135
-64.528673 -21.972129 22.847389
22.654473 -23.650274 15.498435
42.035584 -24.309735 13.719446
-48.706162 -22.706013 21.179168
-42.087509 -22.881378 20.423143
-21.079235 -21.868297 25.276644
-15.618129 -22.182270 24.900834
43.140876 -24.724011 14.110752
-25.849273 -22.044618 25.960229
-37.963804 -23.490104 20.356143
-38.838873 -23.708392 19.939485
-24.490865 -22.254256 26.019456
50.556764 -25.341736 13.640004
51.841141 -25.602136 13.086584
40.618018 -25.354726 14.110752
-38.319715 -23.964651 20.356143
-10.233430 -22.854660 24.459907
-42.827916 -24.083288 20.356143
52.184586 -25.965013 13.165074
2.211305 -25.061461 16.850371
2.579856 -25.184312 16.850371
-45.838423 -24.336895 20.769356
0.366954 -25.075181 17.293308
7.896783 -25.417771 16.403614
-37.766634 -24.542355 19.939485
66.790415 -26.357903 12.606345
-48.470867 -24.470729 21.179168
4.668311 -25.675713 16.850371
49.669803 -26.482114 13.640004
50.303347 -26.608823 13.640004
45.775432 -26.755169 13.562567
64.009606 -27.634669 12.121791
8.266945 -26.528256 16.403614
8.760494 -26.528256 16.403614
67.478870 -27.868902 11.714629
9.254043 -26.651643 16.403614
56.044476 -27.512743 13.086584
51.331645 -27.767491 13.086584
8.760494 -27.021805 16.403614
15.986818 -27.140413 15.952985
62.467206 -28.277336 12.121791
4.074615 -27.287571 16.332111
9.213773 -27.027066 16.850371
62.951885 -28.149217 12.606345
65.335206 -28.793974 11.632867
18.671269 -27.882428 15.498435
63.366940 -28.791470 12.121791
65.937607 -28.791470 12.121791
19.431883 -28.026755 15.425024
62.467206 -29.305603 12.121791
-13.534981 54.509060 16.688136
-30.071610 53.474113 18.176500
38.851348 50.541135 23.710254
-55.575299 51.807482 21.098840
-54.931770 51.978449 20.775537
